-0.2606408791 0.0169969121 0.0492417933
-0.2579721104 0.0239474789 0.0486590653
-0.259135216 0.0200384733 0.0489988243
-0.268348779 0.0179096457 0.04887825
-0.2564833526 0.017042277 0.0493854514
-0.2601150737 0.0232899576 0.0486468559
-0.2593808892 0.0173166778 0.0492554894
-0.2602568701 0.0219128758 0.0487760913
-0.2576126259 0.0165318169 0.0493950066
-0.2566762851 0.018435381 0.0492427312
-0.2603125486 0.0229262436 0.0486752898
-0.263170767 0.0183520108 0.0490195421
-0.2618528877 0.0187318345 0.0490294436
-0.2582701887 0.0145332759 0.0495664732
-0.2592020808 0.0231900734 0.0486891148
-0.2599015379 0.0175952297 0.0492097822
-0.2574443767 0.0193924993 0.0491220402
-0.2550599218 0.0136852503 0.0497635108
-0.2585768412 0.0146770705 0.0495415288
-0.2645124489 0.0193846685 0.0488710549
-0.2652947071 0.0197530929 0.0488072657
-0.2683784707 0.017869777 0.0488810803
-0.2612113436 0.0222430198 0.0487099012
-0.259484469 0.0233062303 0.0486677298
-0.2562355324 0.0147574023 0.0496170874
-0.2569765609 0.0150066555 0.0495663878
-0.1710871046 0.0214602462 0.0482615308
-0.1669514465 0.0204985021 0.0486848551
-0.1747243519 0.0179192919 0.0480901218
-0.1733642797 0.0197259987 0.0481321135
-0.1785567071 0.0220530015 0.0475493497
-0.1741053114 0.0180686688 0.048140053
-0.1741284224 0.0203105788 0.0480352627
-0.169995838 0.0182178509 0.0485100997
-0.1678794965 0.0197777597 0.0486327511
-0.1750752407 0.0200481986 0.0479604463
-0.1734652924 0.0230094212 0.0479724817
-0.1705903168 0.0175178241 0.0484876387
-0.1720986074 0.0220872025 0.048140054
-0.1712875108 0.0156299139 0.0485101582
-0.1732916933 0.0209907553 0.0480808495
-0.17398209 0.0167011084 0.0482139826
-0.177052479 0.0190894025 0.0478230234
-0.1725053029 0.0142469895 0.0484618074
-0.1776929811 0.0196855405 0.0477369823
-0.1774937281 0.0209155212 0.0476989274
-0.1645337844 0.0220030722 0.0488376747
-0.1694627406 0.0155645248 0.048680502
-0.1722673712 0.0181139834 0.0483065348
-0.1753773313 0.0214686613 0.0478676899
-0.174223531 0.0164257504 0.0482044504
-0.1790004842 0.0228875541 0.0474704318
-0.1704476677 0.0169595446 0.0485262881
-0.1730353531 0.0215034304 0.0480808798
-0.1759797821 0.0210197819 0.0478329963
-0.1793191784 0.0231335737 0.0474299377
-0.169031603 0.0198555273 0.0485235302
-0.1737044285 0.0231424493 0.0479444584
-0.1776384403 0.0234379003 0.0475701407
-0.1762137943 0.0176850253 0.047964254
-0.1738396629 0.0208874043 0.0480353284
-0.1756616655 0.0179972821 0.0480005894
-0.1783672074 0.0209409433 0.0476176566
-0.1753595101 0.0211353091 0.0478845905
-0.1704166485 0.0210782532 0.048340512
-0.1735945658 0.0153161754 0.0483129469
-0.1762436226 0.0224354964 0.0477439653
-0.1681552928 0.0193016989 0.0486292596
-0.169905325 0.0202428391 0.048425664
-0.1720115786 0.0193191271 0.0482748025
-0.179765734 0.0237542333 0.0473605604
-0.1725684324 0.0225155965 0.0480773477
-0.1695356543 0.019710916 0.0484839265
-0.168849633 0.0173396804 0.0486554347
-0.1683240062 0.0202409338 0.0485707736
-0.1747260339 0.0151646745 0.0482161184
-0.1727140865 0.0157358379 0.0483744765
-0.169406785 0.0218100692 0.0483996119
-0.1744345174 0.0174194947 0.0481395913
-0.1722705531 0.0206389428 0.0481906096
-0.2245989958 -0.063784866 0.0503757249
-0.2250081564 -0.0634184122 0.0503906734
-0.2247549022 -0.0636128967 0.0503816765
-0.2230770611 -0.0627052031 0.0503394334
-0.2235558625 -0.0610680916 0.0503664783
-0.2257193348 -0.0621901493 0.0504213305
-0.1501428898 0.0518444906 0.0106440431
-0.1490849213 0.0518489583 0.0105241963
-0.1459818901 0.052215595 0.013237057
-0.1497539453 0.0519742492 0.0117104755
-0.1449521963 0.0518646695 0.0100409515
-0.1471371605 0.0517291513 0.009193789
-0.1442747843 0.0523814877 0.0144191241
-0.151694201 0.0518228674 0.0106891321
-0.1446080767 0.0519474568 0.0107069623
-0.1476507744 0.0517139234 0.0091387787
-0.1458612642 0.051869321 0.0102175246
-0.1478992046 0.0522728686 0.0140208709
-0.1463540517 0.0521885568 0.013058475
-0.1466374025 0.0523947269 0.0148879976
-0.1476325869 0.0522348631 0.0136514825
-0.1448258319 0.0516825605 0.0084435169
-0.1472444368 0.0517068958 0.0090169609
-0.1485869678 0.0517880819 0.0099218931
-0.1471502379 0.0518754824 0.0104641266
-0.1471468088 0.0524025137 0.0150318438
-0.1510320664 0.0518379006 0.0107201944
-0.1433253093 0.0521649746 0.0124001098
-0.1467626114 0.051596138 0.0079847103
-0.1445524649 0.0520935827 0.0119652247
-0.1443563381 0.0520730232 0.0117576218
-0.1443346707 0.0524439873 0.0149698382
-0.1474227225 0.052090285 0.012366845
-0.1516586029 0.0520029721 0.012244918
-0.1491120163 0.052153578 0.0131686576
-0.1427181822 0.0524879585 0.0151086889
-0.1454840145 0.0522795403 0.0137167025
-0.1473727333 0.0518130957 0.0099567161
-0.1518494936 0.0521338909 0.0134083151
-0.1513428271 0.0522977777 0.0147529213
-0.1456351822 0.0515546064 0.0074557379
-0.1460859543 0.052188826 0.0130206255
-0.1432592102 0.0521969958 0.0126677571
-0.1479691106 0.0524158807 0.0152709563
-0.1471081693 0.0523456683 0.014533325
-0.148517715 0.0520412758 0.0121061619
-0.1440270918 0.0521295608 0.0121983336
-0.1484680951 0.0521289606 0.0128587643
-0.2254705939 0.0051015682 0.0485976714
-0.2234261482 0.0073443277 0.0486903621
-0.2245348193 0.0067960839 0.0486378759
-0.2244737498 0.0020400949 0.048656685
-0.2229655259 0.0063894295 0.0487161021
-0.2284660375 -0.0213516334 0.0501459201
-0.2261739944 -0.0241191692 0.049259356
-0.22521895 -0.0230185253 0.0489676146
-0.2247751638 -0.0202759246 0.048908939
-0.2278974184 -0.0240855358 0.0498554235
-0.2269139669 -0.022348232 0.0495758166
-0.2274866854 -0.0223862725 0.0497722023
-0.2265215866 -0.0231869049 0.0494114688
-0.2275378852 -0.0235574732 0.0497495142
-0.2260794436 -0.0233037303 0.0492548195
-0.2323175935 -0.0055279438 0.050551126
-0.2313296211 -0.0044594902 0.0502676308
-0.231528611 -0.0034062481 0.0502142326
-0.2336944105 -0.0072361682 0.0509652984
-0.2348338144 -0.0058386169 0.0510631593
-0.2312410023 -0.005559849 0.0503464061
-0.233063615 -0.0047191418 0.0506244551
-0.2318485566 -0.0053572641 0.0504458567
-0.2341437303 -0.0042089383 0.0507881884
-0.2335796296 -0.002100608 0.0504958023
-0.2351932143 -0.004203059 0.0509899509
-0.2342234343 -0.0015366515 0.0505707596
-0.2326583526 -0.0043387244 0.0505132067
-0.2325131693 -0.0023054532 0.0503081003
-0.2332179663 -0.0076467852 0.0509092399
-0.231518914 -0.0054847424 0.0503934273
-0.2320426257 -0.0071357988 0.0506381944
-0.2174775619 -0.0645935918 0.049935462
-0.2174235342 -0.0631565724 0.0498786385
-0.2193445517 -0.0630238962 0.0501896822
-0.215701137 -0.0673399047 0.0497353763
-0.2151096999 -0.0656219238 0.0495809238
-0.2181739715 -0.0640145485 0.0500305051
-0.2182363018 -0.0661808155 0.0501130259
-0.2163993609 -0.0681603064 0.0498774147
-0.2162922811 -0.0660566397 0.0497896339
-0.2136301332 -0.0665273924 0.0493681623
-0.2170304767 -0.065034039 0.0498767384
-0.2170634564 -0.0667948946 0.0499409113
-0.2156569579 -0.0648623739 0.0496454499
-0.216090455 -0.0688461709 0.0498495721
-0.2171997701 -0.0671253222 0.0499743226
-0.231804317 0.0155659583 0.0492867727
-0.2319363262 0.0189711374 0.049020959
-0.2319195058 0.0200159075 0.0489324049
-0.2318725596 0.0139353921 0.0494301044
-0.2317386664 0.0160326211 0.0492401216
-0.2328544698 0.0119137494 0.0497173493
-0.2309788097 0.0160287942 0.0491476803
-0.2263717491 -0.0102187623 0.0490051793
-0.2266496997 -0.0137742534 0.0494113092
-0.2270258807 -0.0102574013 0.0490686979
-0.2274329022 -0.0125094323 0.049346905
-0.2256196995 -0.011853963 0.0491120901
-0.2267279822 -0.0106828522 0.0490872344
-0.2268811709 -0.0105960552 0.0490918417
-0.2265141324 -0.011549838 0.049160702
-0.1120900142 0.0449657058 0.045564364
-0.1143678536 0.0461865836 0.0440747727
-0.112144979 0.0461927087 0.0444792282
-0.1122899008 0.0447687353 0.0457000815
-0.1127043501 0.0457711456 0.0447454393
-0.115053499 0.0459837104 0.0441261046
-0.1116539417 0.0446298712 0.0459389923
-0.1145283078 0.0448959068 0.0451759786
-0.1174566777 0.0454485273 0.0441519257
-0.1984841959 0.0256525444 0.0469622789
-0.1975995841 0.027338176 0.0467024622
-0.1978733265 0.0284487959 0.0465849425
-0.1975854604 0.0313741086 0.0462121933
-0.1969065145 0.0267430155 0.0467312073
-0.1982778029 0.0283141954 0.0466266049
-0.1975808662 0.0265730694 0.0467940638
-0.1980825402 0.026042358 0.0468898469
-0.1984897531 0.0308161107 0.0463365099
-0.1973265203 0.0249325218 0.046977056
-0.1962805147 0.0293713139 0.0463732884
-0.1951521085 0.0306265137 0.0461503902
-0.1996740915 0.02859618 0.0466798924
-0.1992489585 0.028949733 0.0466103864
-0.1967845579 0.0310165331 0.0462053737
-0.2072985481 -0.0661804708 0.0476752948
-0.2090740175 -0.0665806035 0.0482251699
-0.2099367251 -0.0646577552 0.0482654427
-0.2089621371 -0.0639662502 0.0479130351
-0.2075635411 -0.0657857591 0.0477086623
-0.2084158035 -0.065485546 0.0479198543
-0.2081267294 -0.0654522378 0.0478337384
-0.2365157834 -0.0874674269 0.0431329596
-0.2367523376 -0.0872405767 0.0432327137
-0.2363188634 -0.087028559 0.0435619599
-0.2371693207 -0.0869284088 0.0433370069
-0.218798872 -0.028919106 0.0488021906
-0.2175559154 -0.0294431012 0.0487624335
-0.219410533 -0.0295655959 0.0488246599
-0.2170914387 -0.0281828428 0.0487428999
-0.2180807721 -0.028891717 0.0487781612
-0.2166965443 -0.0276340144 0.0487279713
-0.2156248763 -0.0236493833 0.0486794432
-0.215955479 -0.026428717 0.0486993927
-0.2199886475 -0.0284249946 0.0488402705
-0.2169971488 -0.0245830085 0.0487281935
-0.2216127021 -0.0300578796 0.0488996613
-0.2162615486 -0.0245143506 0.0487034481
-0.2168337606 -0.0248076667 0.0487234678
-0.2203390102 -0.0284036068 0.0488518829
-0.2165290165 -0.0246727466 0.0487128742
-0.2252352943 -0.032702215 0.0492721075
-0.2250186688 -0.0300656536 0.049276003
-0.2262052768 -0.0312548365 0.0494412199
-0.2241876321 -0.0305101274 0.0491423139
-0.2434836603 -0.0095877354 0.0523063647
-0.2442737591 -0.0173625735 0.0526423188
-0.2454430757 -0.0172827589 0.0526203162
-0.2465543756 -0.0163943638 0.052562994
-0.2474312447 -0.0128510472 0.0523903941
-0.2417742264 -0.0126142655 0.0524689259
-0.2436377039 -0.0155781325 0.0525723776
-0.2444482109 -0.0115659821 0.0523798142
-0.2411703541 -0.0158592234 0.0526238539
-0.243810907 -0.0109307638 0.0523613915
-0.2416663895 -0.0157968496 0.0526132424
-0.2426270389 -0.0184133243 0.0527153535
-0.2437599135 -0.0154861552 0.0525663302
-0.243609951 -0.0140139643 0.0525027218
-0.2441502616 -0.012696367 0.0524351638
-0.2452182686 -0.0109714699 0.0523410386
-0.2406412709 -0.0195595766 0.0527980105
-0.2423218301 -0.0123594578 0.0524488784
-0.2458995603 -0.0152105844 0.0525202652
-0.2463747513 -0.0169353208 0.0525900657
-0.2423663037 -0.0097713356 0.0523321993
-0.2412175612 -0.0191257164 0.0527694874
-0.2440337406 -0.0101965645 0.0523249794
-0.2421000227 -0.0142801666 0.052538444
-0.2445184061 -0.0107598702 0.0523425848
-0.2420949141 -0.0165150234 0.0526386724
-0.2412512423 -0.0160074862 0.0526292232
-0.2466293477 -0.0130798183 0.0524132819
-0.2417127181 -0.0190077285 0.0527563975
-0.2461697752 -0.0114268413 0.052346451
-0.2432641832 -0.0183673515 0.0527032534
-0.2402063942 -0.0194896943 0.0528017317
-0.2380982477 -0.0009089788 0.0510695712
-0.2375240963 -0.0008845037 0.0510180731
-0.2391772221 -0.0013486361 0.0512121767
-0.2396505384 -0.0013629271 0.0512539453
-0.2418434388 -0.0014644188 0.0514515687
-0.240999358 -0.0022444389 0.051470853
-0.2400156189 -0.00287671 0.0514611037
-0.2410145586 -0.0051833822 0.0518142731
-0.2408539846 0.0001292824 0.0511822024
-0.2417522746 -0.0009084402 0.0513791209
-0.236775293 -0.0006724374 0.0509299383
-0.2396869543 -0.0009485926 0.0512087968
-0.2388093286 -0.0006786353 0.0511030073
-0.2264861838 -0.051065803 0.049902547
-0.2262165423 -0.0514703842 0.0498497172
-0.2291165662 -0.050350602 0.0506237578
-0.2265818217 -0.050090082 0.0498682718
-0.2278738327 -0.0506804207 0.0502825044
-0.1804077225 0.0062721015 0.0481664314
-0.1840029925 0.0091039349 0.0479974975
-0.1832767667 0.0077753515 0.0480269999
-0.1748460128 0.0059794672 0.0484527353
-0.1762217785 0.0107901211 0.0484108569
-0.1743169954 0.006482466 0.0484832104
-0.1825459889 0.0065279372 0.0480572339
-0.1838821548 0.0085385958 0.0480003035
-0.1768541563 0.0095141464 0.0483703063
-0.1760131412 0.0027517269 0.0483725631
-0.1804293463 0.0039720679 0.048151262
-0.1792851227 0.0088684334 0.0482404402
-0.1787393076 0.0082951687 0.0482652113
-0.1815643787 0.0045340895 0.0480959014
-0.1741155085 0.0071797659 0.0484979065
-0.1800023805 0.0085914385 0.048201595
-0.1856757177 0.0088263763 0.0479091565
-0.1754830448 0.0062850412 0.0484216042
-0.176317135 0.0034879568 0.0483613136
-0.1764369242 0.0039658109 0.0483580275
-0.1824900885 0.0094540579 0.0480780032
-0.1779243761 0.0048219882 0.0482862087
-0.1789008031 0.0049020706 0.0482361198
-0.1812083961 0.0059596076 0.0481230484
-0.1737431971 0.0087704015 0.048526908
-0.1764886821 0.007397811 0.0483763102
-0.1750968576 0.0045821676 0.0484312066
-0.1812210432 0.0063908567 0.0481250275
-0.1779706237 0.003641335 0.0482766013
-0.1792032333 0.0072367944 0.0482347155
-0.1858183804 0.0093654958 0.0479050598
-0.1769389816 0.0101392758 0.0483697309
-0.1818621296 0.0101011394 0.0481144834
-0.1756162445 0.0098971577 0.0484367685
-0.1755305632 0.0077475989 0.0484280765
-0.1741653515 0.0107020488 0.0485168399
-0.1783499452 0.0075882551 0.0482810618
-0.1818629406 0.0048638572 0.0480824504
-0.1784101066 0.0108463931 0.0482978473
-0.17644928 0.0087525403 0.0483866263
-0.1791679196 0.006148812 0.0482298989
-0.1827597631 0.0069557006 0.0480487735
-0.1813434392 0.0089575211 0.0481343655
-0.1764941502 0.0073328244 0.04837563
-0.177752162 0.0100540273 0.0483270882
-0.1749427227 0.0067123481 0.0484522025
-0.2311109034 0.0187346862 0.0489176211
-0.2293099452 0.0140764288 0.0490059991
-0.227734623 0.0137671644 0.0486639288
-0.2280073804 0.0146048612 0.0486358201
-0.2306865608 0.0188524154 0.0488030874
-0.2299019512 0.0144569029 0.0491051175
-0.2383516517 -0.0241541819 0.0525876393
-0.2391635786 -0.0238652513 0.0527139978
-0.2360283913 -0.0277162208 0.0521283444
-0.23702856 -0.026952491 0.0522985696
-0.2386220902 -0.0253703974 0.0525828337
-0.2381332401 -0.0277824381 0.0524267895
-0.2385792868 -0.023423504 0.0526462781
-0.2362770857 -0.0286121568 0.0521318748
-0.2364744011 -0.0276904722 0.0521930052
-0.2374193037 -0.0245399045 0.0524406126
-0.2388573862 -0.0244545612 0.0526491831
-0.2377692732 -0.0276481644 0.0523795713
-0.2281496838 0.0064547968 0.0490556079
-0.2266968625 0.0057360027 0.048726968
-0.2289354191 0.0056650627 0.0492515577
-0.2289269897 0.0067190055 0.0492333007
-0.2276326741 0.0021912342 0.0490005848
-0.2244110164 -0.0452436596 0.049607339
-0.2236889025 -0.0458295192 0.0496468142
-0.2250876582 -0.0418699544 0.0495570413
-0.2241306577 -0.045036733 0.0496206186
-0.2051222464 -0.0308094215 0.0477050648
-0.2055367815 -0.0323636543 0.0476786427
-0.2144309769 -0.0224628347 0.0486280885
-0.2084329863 -0.0272245775 0.0480549556
-0.2023276173 -0.0317737431 0.0474820045
-0.2039914623 -0.0297601001 0.0476652802
-0.2118277759 -0.0258776578 0.0483320728
-0.2105570415 -0.0263388928 0.0482298482
-0.2019535672 -0.0313796018 0.0474704934
-0.2057390364 -0.0325784803 0.0476848071
-0.205490935 -0.0279749867 0.0478294121
-0.2130495064 -0.0242401537 0.0484722208
-0.2037374125 -0.0313461782 0.0475924656
-0.2040300999 -0.034099731 0.047515742
-0.2118854392 -0.0259713206 0.0483326937
-0.2023259753 -0.0302794338 0.0475342863
-0.2086576256 -0.0285482937 0.0480237563
-0.2076386995 -0.0266897133 0.0480199205
-0.2122080486 -0.0252952496 0.0483782447
-0.2067901701 -0.0329726579 0.0477421683
-0.2027028595 -0.0299349167 0.0475718879
-0.2090484273 -0.0277020772 0.0480798907
-0.2067022379 -0.0334827511 0.0477183289
-0.2044043058 -0.0323079113 0.047603907
-0.2050149474 -0.0289613475 0.0477625952
-0.2059927975 -0.0321441211 0.0477172209
-0.2057098036 -0.0327290202 0.0476775493
-0.2033193456 -0.0299088702 0.0476145489
-0.2070503577 -0.0303071609 0.0478532448
-0.2091035997 -0.0262758538 0.0481336327
-0.2058093583 -0.0339311411 0.0476421427
-0.2086815487 -0.0261928081 0.0481079636
-0.2030053612 -0.0324960959 0.0475025738
-0.2128721821 -0.0247428244 0.0484425881
-0.2021606179 -0.0298447148 0.0475383304
-0.2098739285 -0.0279771228 0.0481261493
-0.2474170098 -0.0370456573 0.0516169296
-0.2481877112 -0.0334188716 0.0518783166
-0.2476285384 -0.0373498488 0.051559869
-0.2498858207 -0.0350999017 0.0514956632
-0.247225779 -0.0339994473 0.0519431634
-0.2462628834 -0.0334976199 0.0521154074
-0.2484609402 -0.0343575662 0.0517505217
-0.2465498837 -0.0333558798 0.05209294
-0.248453367 -0.0372645054 0.0514633845
-0.2503649703 -0.033322464 0.0516108593
-0.2506820933 -0.0335323182 0.0515497137
-0.2464104323 -0.0386560101 0.0515853974
-0.2479080028 -0.0351586221 0.0517414808
-0.2473798048 -0.0304835736 0.0522720177
-0.2476549033 -0.0351333446 0.0517761878
-0.2470908422 -0.0345915926 0.051901645
-0.2503592425 -0.0332226476 0.0516214807
-0.2480650945 -0.0316645807 0.0520677813
-0.2253536622 0.0011565513 0.0487462885
-0.2264438389 0.0051608003 0.0486895274
-0.2266573216 0.0019717562 0.0488614962
-0.2266543701 0.0028813891 0.0488192344
-0.2259269129 0.0026388564 0.0487451616
-0.2263317528 -0.0078532362 0.0489254015
-0.226388391 -0.0051709209 0.0489232589
-0.2265045817 -0.0045195228 0.0489284275
-0.2267361006 -0.0052455578 0.0489427164
-0.2230648103 -0.0185563927 0.0488298382
-0.2169304023 -0.0215363024 0.0486858405
-0.2181183702 -0.0209751418 0.0487133447
-0.2218612484 -0.0145065515 0.0489127655
-0.2214443677 -0.0175618274 0.0488345431
-0.2231615828 -0.0149327876 0.0489179107
-0.2212503729 -0.0155699741 0.0488800337
-0.2185348519 -0.019843772 0.0487454087
-0.2226318594 -0.0166760649 0.0488698288
-0.2172748763 -0.020591411 0.0487125798
-0.2186805893 -0.0205307906 0.0487306501
-0.2224346992 -0.0200297807 0.0487870441
-0.2225255758 -0.014357388 0.0489241965
-0.2203181518 -0.0158298988 0.048862779
-0.2164477342 -0.0203341879 0.0487089734
-0.2228885432 -0.0141746477 0.0489328707
-0.221591683 -0.018702457 0.0488089212
-0.2181689248 -0.018224958 0.048779918
-0.2169664385 -0.0212366339 0.0486934554
-0.2207439948 0.0119886624 0.0489823321
-0.218589994 0.0090114274 0.0493255671
-0.2211107401 0.0140471783 0.0489161673
-0.2194161507 0.0108004266 0.0491906993
-0.2196231105 0.0079454038 0.049173359
-0.2208823907 0.0158207333 0.048942153
-0.2184399235 0.0093671443 0.0493466768
-0.2204700444 0.0078379845 0.0490447649
-0.2204029987 0.0144219681 0.049022208
-0.2207484137 0.0132547366 0.0489753551
-0.2195957689 0.0133341032 0.0491506994
-0.219281916 0.0081164926 0.0492245279
-0.2187965359 0.0086442081 0.0492959047
-0.2183894007 0.0091952521 0.0493552356
-0.224330814 0.0005579825 0.0486826293
-0.2242440148 -0.0052116951 0.048819774
-0.2230992245 -0.0001840033 0.0487813922
-0.2238580506 -0.0044226733 0.0488274644
-0.2233040245 -0.0043373056 0.0488623487
-0.2240089195 -0.0008719749 0.0487365867
-0.2235396629 -0.0034588969 0.0488266837
-0.2219861506 -0.0024388229 0.0489067241
-0.228326285 0.0126387002 0.0488754937
-0.2298753043 0.0126088809 0.0492133795
-0.2297899954 0.0072024586 0.0494177504
-0.2284564663 0.0128600816 0.0488946589
-0.2291955066 0.0113061761 0.0491193472
-0.2298110515 0.0071810468 0.0494232094
-0.2468035611 0.0213950274 0.0491552598
-0.2557645241 0.0205399127 0.0490576271
-0.2499745962 0.0185276518 0.049381665
-0.2536863952 0.0221520131 0.0489364219
-0.2540595675 0.0148858401 0.0496680343
-0.2547768675 0.0239582984 0.0487301716
-0.2514786631 0.0160807257 0.0495996383
-0.2555511266 0.0208410172 0.049031388
-0.2491927443 0.0207814952 0.049168456
-0.2535733012 0.0194031867 0.0492184333
-0.255905963 0.018448941 0.0492674601
-0.2523290742 0.0199230049 0.0491911808
-0.249889442 0.0224505691 0.0489842798
-0.2496530767 0.021586592 0.0490770559
-0.2546096603 0.0233579701 0.0487946976
-0.249760268 0.0206373362 0.0491714299
-0.2537319588 0.0143178674 0.0497325733
-0.2490312478 0.0219522408 0.0490526653
-0.2472763044 0.0211435135 0.0491711096
-0.2509719737 0.0199481419 0.0492165857
-0.2544384484 0.0148594724 0.0496629104
-0.2504037582 0.0224140094 0.0489774023
-0.2506745039 0.0173988561 0.0494820937
-0.2498419542 0.021000642 0.049132782
-0.2525320603 0.0168650994 0.0494981269
-0.2564504951 0.0244230936 0.0486483963
-0.2523928777 0.0173087123 0.049455859
-0.2541473843 0.0194798217 0.0491988073
-0.249506891 0.0200201047 0.0492394513
-0.255630938 0.0178444959 0.0493346265
-0.2558668972 0.0192244188 0.0491893635
-0.2557708479 0.0216342887 0.0489461489
-0.2566046721 0.0206916347 0.0490248792
-0.2523603674 0.019169462 0.0492672057
-0.2525305334 0.0157368274 0.0496129551
-0.2210634034 -0.0541538659 0.0498933895
-0.2209192146 -0.0511451085 0.0496561762
-0.2216935456 -0.0536886804 0.04993962
-0.2196780776 -0.055508137 0.0498158784
-0.220229067 -0.054967659 0.0498465732
-0.2196750279 -0.0486125654 0.0493138293
-0.2197769036 -0.0570862304 0.0499432447
-0.2197826463 -0.055586811 0.0498348897
-0.218231637 -0.051909762 0.0493702901
-0.2215235253 -0.0544262363 0.0499716733
-0.2187317153 -0.0532690756 0.0495327277
-0.2193631372 -0.0526047009 0.0495646297
-0.2187364378 -0.0536230517 0.0495590801
-0.2185791819 -0.0530117331 0.0494946231
-0.2175189146 -0.0511229533 0.0492224817
-0.2192916179 -0.0542954158 0.0496785432
-0.2222347615 -0.0490415077 0.0496703057
-0.2207963815 -0.0548529491 0.0499103177
-0.2213481298 -0.0504207039 0.049657978
-0.2210933994 -0.0546490363 0.0499332254
-0.2240640014 0.0144977579 0.0486970114
-0.2221088991 0.0125829926 0.0488172038
-0.2246219965 0.0125505523 0.0486358421
-0.2251525765 0.0129634267 0.0486020739
-0.2229502581 0.00848087 0.0487124083
-0.2245735977 0.011203049 0.0486248107
-0.2216647108 0.0127203831 0.0488506778
-0.2243845731 0.0104674959 0.0486305012
-0.2243693992 0.0126447909 0.0486550513
-0.2246934787 0.0140711897 0.0486470761
-0.2233688705 0.0124177802 0.0487246712
-0.2256799631 0.0125408181 0.0485595345
-0.2215057991 0.0037038405 0.048849503
-0.2205414752 -0.0008558082 0.0489687942
-0.2216936182 0.0023889434 0.0488499947
-0.2240880896 0.0019937413 0.0486799795
-0.2220470024 0.0005673114 0.0488438939
-0.2213563025 0.0024319916 0.0488740812
-0.2226696877 0.0015982878 0.0487874709
-0.2203518401 -0.0006764558 0.0489806644
-0.2218394519 0.0040858296 0.0488211055
-0.2502036816 0.0139452006 0.0498673709
-0.2465045973 0.0214179525 0.0491612237
-0.2448852517 0.0106170493 0.050382436
-0.2464324082 0.0158807031 0.0497654723
-0.2469355199 0.0159295176 0.0497456778
-0.24766228 0.0153254624 0.0497904428
-0.2470708774 0.0149252857 0.0498509897
-0.247998049 0.0198571099 0.0492879631
-0.2458743413 0.017905362 0.049561361
-0.2458641648 0.014500825 0.0499318939
-0.246235125 0.0205344339 0.0492650643
-0.2504122604 0.0120356255 0.0500690296
-0.2468677145 0.0209937117 0.0491969043
-0.2466336892 0.0203531292 0.0492733052
-0.2446086876 0.0142044124 0.050000277
-0.2489818696 0.0148747404 0.0498014637
-0.247294866 0.0133574291 0.0500150432
-0.2479574061 0.0119537458 0.0501486159
-0.2482747268 0.0121957076 0.0501131663
-0.2458711495 0.0170647196 0.0496528719
-0.2480713952 0.0130981717 0.0500208787
-0.2499639123 0.0127818775 0.0500007847
-0.2470516387 0.0182774391 0.0494870004
-0.2515683301 0.0121698397 0.0500211476
-0.25223589 0.0142208545 0.049778881
-0.2485276602 0.0171332619 0.0495689298
-0.2520661942 0.0123362304 0.0499887179
-0.2456466587 0.0190013075 0.0494487337
-0.2474939641 0.0161924754 0.0497010023
-0.2504042368 0.0166008933 0.0495727926
-0.2530239091 0.0125770673 0.0499349519
-0.2492988929 0.0151237191 0.0497652596
-0.2461729811 0.018093967 0.0495322518
-0.2459218066 0.0140852673 0.0499754257
-0.2519002976 0.0146521618 0.0497416394
-0.2460821376 0.019290116 0.0494047874
-0.2427159109 0.0116131219 0.0503365754
-0.2768166045 -0.0916782428 0.0353151967
-0.2767939064 -0.0915787814 0.0356234543
-0.2753941309 -0.0917214833 0.0350876386
-0.2723560051 -0.0922424512 0.0332668384
-0.2756509664 -0.0913614696 0.0362255571
-0.275996965 -0.091435341 0.0360181053
-0.2130818752 -0.0543611685 0.0485892994
-0.2130885954 -0.0567983202 0.0488803425
-0.2155256569 -0.0493367335 0.0487083553
-0.2125337791 -0.0544115591 0.0484349109
-0.2145164973 -0.053262532 0.0488787381
-0.2137026252 -0.0512051006 0.048396573
-0.2138318774 -0.0515027172 0.0484696915
-0.2139547567 -0.053372588 0.0487274345
-0.2475583993 -0.0121965912 0.0523497513
-0.2493392165 -0.0071055841 0.0517977408
-0.2447594106 -0.0069904818 0.0520162869
-0.2463738689 -0.005395398 0.0517905038
-0.2495269186 -0.0048375021 0.0515821022
-0.2473121243 -0.010415507 0.0522000999
-0.2501463914 -0.0119586584 0.0521987019
-0.2482739387 -0.0055937459 0.051713528
-0.2451389286 -0.0071169151 0.0520088065
-0.2467256214 -0.0038251742 0.051630123
-0.2444167132 -0.0100012101 0.05230721
-0.2465238133 -0.0115988855 0.0523471322
-0.2435346473 -0.0085876981 0.0522227772
-0.2496562672 -0.0110146309 0.0521373636
-0.2448036929 -0.0090299417 0.0521995349
-0.2495050823 -0.0056897759 0.0516606973
-0.2485310972 -0.0012806579 0.0513084495
-0.2461519673 -0.0061394828 0.0518692648
-0.2428125634 -0.0075766185 0.0521669404
-0.2441702554 -0.0092741216 0.0522534149
-0.2488511413 -0.010329956 0.0521153616
-0.2459414479 -0.0076330576 0.052015613
-0.2499162004 -0.0084499685 0.0518911429
-0.2481986682 -0.0104289241 0.0521569884
-0.2469359344 -0.0037156109 0.0516096429
-0.2464626829 -0.0044076981 0.0516962442
-0.2476771507 -0.0122768052 0.0523511076
-0.244304841 -0.0090061165 0.0522223134
-0.2475995932 -0.0094551503 0.0520983931
-0.2494866576 -0.0089042551 0.0519539337
-0.2156592107 -0.0066639737 0.0489424154
-0.2163540304 -0.0090290084 0.0489185196
-0.2146342365 -0.0076073278 0.0489771292
-0.2128416347 -0.0047188981 0.0490383903
-0.2155858352 -0.0073819767 0.0489448218
-0.21524171 -0.0069546717 0.0489565667
-0.2150376757 -0.0057215744 0.0489636489
-0.212996407 -0.0709769051 0.0489238825
-0.2121220354 -0.0677487743 0.0489318994
-0.2134150143 -0.0682203278 0.0492555557
-0.2109304417 -0.0718150291 0.0482826079
-0.212260686 -0.068897721 0.048880945
-0.2107673224 -0.0740217733 0.0480650356
-0.2121646622 -0.0695510524 0.0488032249
-0.2139195468 -0.0692446392 0.0493163149
-0.2131388302 -0.06776635 0.0492139714
-0.2109772017 -0.0725200816 0.0482406566
-0.2129451045 -0.0694558118 0.0490282094
-0.2106848575 -0.0742493083 0.0480243024
-0.2121390503 -0.0696003374 0.0487922416
-0.2302206799 -0.0215481764 0.050740996
-0.2293383343 -0.0205514734 0.0503828287
-0.227157777 -0.0196031829 0.0496158675
-0.228472369 -0.0192943342 0.0500095489
-0.228998422 -0.0210866851 0.0503165597
-0.2493000626 0.0065711152 0.0505864349
-0.2465861816 0.0036952703 0.0509264185
-0.2477720888 0.0021877884 0.0510175158
-0.2474288742 0.0035645479 0.0509096085
-0.2514297866 0.0099526199 0.0502221184
-0.249260097 0.0088814946 0.0503874515
-0.2488667833 0.0054197488 0.050700733
-0.2439587085 0.0098957723 0.0504765647
-0.2485675407 0.0089421573 0.0504053217
-0.2497020112 0.0045536949 0.0507479282
-0.2451337806 0.0071457254 0.0506757587
-0.2494956607 0.0059748785 0.0506315982
-0.2481476616 0.0021908333 0.0510047085
-0.2471845341 0.0086122298 0.050480117
-0.2522970421 0.0084543913 0.0503230557
-0.2476000086 0.0072712114 0.0505825121
-0.2494544912 0.0072990666 0.0505181613
-0.2532820707 0.0118695857 0.0499940484
-0.2504870771 0.0079517657 0.0504270839
-0.2536416065 0.0113777701 0.0500246829
-0.247206181 0.0045724782 0.0508296548
-0.2501856323 0.0105779121 0.0502094553
-0.2517030591 0.0078663394 0.0503938796
-0.2482673613 0.0106693726 0.0502655913
-0.2503291587 0.0053679875 0.0506563808
-0.2429560273 0.0088453793 0.0506011248
-0.2462544287 0.0092565292 0.0504553174
-0.2494385651 0.0010614133 0.05105952
-0.2496670101 0.008879034 0.0503740749
-0.2457935011 0.0051650836 0.0508254542
-0.2501367631 0.0100547954 0.0502564435
-0.249145206 0.0114773811 0.0501662161
-0.2426533102 0.0098790712 0.0505216101
-0.2471036641 0.0090032027 0.0504489191
-0.2460983408 0.0084511388 0.0505303606
-0.2495620863 0.0093078302 0.050340401
-0.2519871182 0.0119572473 0.0500296964
-0.2222031263 -0.0413605739 0.049360921
-0.2234135366 -0.0418784173 0.0494634733
-0.2224145609 -0.0457159103 0.0495587162
-0.2225708243 -0.0450926001 0.0495428463
-0.2235973181 -0.0405294272 0.0494188311
-0.2235537261 -0.0404057408 0.0494107076
-0.2232293739 -0.0467798169 0.0496579213
-0.2243321386 -0.0434296052 0.0495901514
-0.2235306372 -0.043238475 0.0495286453
-0.2236782176 -0.0440605291 0.0495731581
-0.2210165712 -0.0404361887 0.0492428124
-0.2246874761 -0.0411696315 0.0495185258
-0.2789093244 0.0035984955 0.0491910695
-0.2737271177 0.0015376036 0.0494522828
-0.2755827145 0.0034076336 0.0493214428
-0.2729774709 0.0031537483 0.0494269858
-0.2715205597 0.0001977963 0.0495787406
-0.2778308932 0.0001311358 0.0493455599
-0.2725418876 -0.0051861374 0.0497180688
-0.2708592939 -8.18423e-05 0.0496126213
-0.2717638038 0.0009449842 0.0495450444
-0.2804986885 0.0057868886 0.0490596686
-0.2808971434 0.0078196669 0.0489778172
-0.270967177 -0.001094286 0.0496419617
-0.2774803869 0.0040974078 0.049227928
-0.2748578249 0.0007520552 0.0494359943
-0.2807725433 0.0070824798 0.0490067584
-0.2785860801 0.0021494017 0.0492508806
-0.2790155416 0.0007691149 0.049280348
-0.2751358411 0.0004882385 0.0494343181
-0.2707999062 0.000904816 0.0495823218
-0.2743510318 -0.0050841597 0.0496472266
-0.2760968584 -0.0024603069 0.0494956393
-0.2728482019 -0.0046650862 0.0496894723
-0.2810946818 0.0079748835 0.0489653339
-0.2693744311 -0.0015926679 0.0497177954
-0.2772170803 -0.0009346242 0.0494035768
-0.2734628408 0.0006272137 0.0494921417
-0.2741855003 -0.003213863 0.0495917665
-0.2769507336 0.0028884976 0.0492875231
-0.2738341219 -0.0034560253 0.0496128533
-0.2730045114 0.0004388328 0.0495154455
-0.2787220195 -4.79253e-05 0.0493182215
-0.272990509 0.0004283589 0.049516313
-0.2742070785 0.0030283777 0.0493852526
-0.2766341449 -0.0005558021 0.0494128366
-0.2780559802 0.0009227772 0.0493110761
-0.2739218357 0.0028561101 0.0494015692
-0.2704878723 0.0001802358 0.0496178388
-0.274525695 0.0035627843 0.0493557571
-0.2737243763 -0.0041080926 0.0496384354
-0.2705590458 -0.0041433599 0.0497576654
-0.2765405349 -0.000680124 0.0494204253
-0.2787092435 0.0018053115 0.0492576258
-0.2768554136 0.0021382874 0.0493158012
-0.2770613762 -0.0048715761 0.0495391243
-0.2729819338 -0.0044736099 0.0496781741
-0.2719866992 -0.0037227016 0.0496905509
-0.2669705516 -0.0030685816 0.0498560987
-0.2712317495 0.001603446 0.049543191
-0.2778229492 -0.0007153599 0.049373752
-0.2739641075 -0.0062536091 0.0497001974
-0.2798325864 0.0065478097 0.0490594388
-0.2788152593 0.0056024126 0.0491285404
-0.2722770629 -0.0050679378 0.0497240517
-0.2735134739 4.70971e-05 0.0495093705
-0.2750482285 0.0035348073 0.0493371884
-0.2741186607 -0.0038934105 0.0496166537
-0.2728997391 -0.000165892 0.0495392819
-0.2742048463 0.0032678557 0.049377444
-0.2476365471 -0.0916823125 0.0359801118
-0.2518970855 -0.0918593234 0.0346150807
-0.2484283145 -0.0917224177 0.0357029487
-0.2548247828 -0.0922803882 0.0327015631
-0.2530003154 -0.0915993102 0.0352580472
-0.253412553 -0.0914187901 0.0357698889
-0.2482812731 -0.0917976886 0.0354849301
-0.2534099164 -0.0914568526 0.0356463724
-0.254144078 -0.0918733262 0.0341536909
-0.271330882 0.0036826576 0.0494515246
-0.2733459916 0.0071571175 0.0492318703
-0.2692802203 0.0063945461 0.0493852442
-0.276171684 0.0053587683 0.0492332807
-0.2772309871 0.0075363531 0.0491015249
-0.2691118925 0.0123671901 0.0491130761
-0.2731689724 0.0090309427 0.0491500867
-0.2765175584 0.0061419082 0.0491869149
-0.2742340601 0.0044087244 0.0493335859
-0.2656071504 0.0047370028 0.0495687359
-0.26886803 0.0152669396 0.0489856428
-0.2662102304 0.0068413453 0.0494536185
-0.2688912023 0.0041426604 0.049500993
-0.2671056433 0.0063891516 0.049448607
-0.2700291028 0.0065708304 0.0493553322
-0.2754658283 0.0055411106 0.0492453083
-0.276414023 0.0072383083 0.049139061
-0.2702573839 0.0037582315 0.049479175
-0.2664006083 0.0028295593 0.0496341882
-0.2748010928 0.0049507739 0.0492919849
-0.2754555909 0.0073278267 0.0491627249
-0.272159243 0.0128125257 0.0490039754
-0.2651164597 0.0021426256 0.0497033227
-0.2696218573 0.0059579603 0.0493955809
-0.272963482 0.0046597669 0.0493588166
-0.2676088174 0.0083113177 0.0493448398
-0.2780396554 0.0108553999 0.0489240941
-0.272914525 0.005108152 0.0493394382
-0.2776978266 0.0107241682 0.0489401024
-0.2689444201 0.0052370754 0.0494486818
-0.2702506101 0.0115628947 0.0491173362
-0.2772492392 0.0099934212 0.048987019
-0.2720311051 0.0046111851 0.0493881305
-0.2662470702 0.0068512687 0.049452089
-0.2796228952 0.0098854366 0.0489231377
-0.2682464942 0.0063086411 0.0494192308
-0.2768278464 0.0105979563 0.0489712064
-0.275901487 0.0097242465 0.0490386209
-0.2756658979 0.0106149314 0.0490041421
-0.2694006374 0.0012110401 0.049622197
-0.2795449954 0.0088558841 0.0489731565
-0.2694090106 0.0024968555 0.0495623088
-0.2724673013 0.0054919819 0.0493346132
-0.2765227449 0.0068816482 0.04915245
-0.2694961646 0.0114020618 0.0491466929
-0.2713291404 0.0106635635 0.0491277514
-0.2754451015 0.011807829 0.0489552152
-0.2696601077 0.0102586801 0.0491949729
-0.2764886469 0.0065158192 0.0491704093
-0.2691802416 0.0133822818 0.0490640053
-0.2684895507 0.0103087298 0.0492266242
-0.2732197785 0.0087124408 0.0491633865
-0.2713181006 0.0152567052 0.0489150095
-0.2746354342 0.010757482 0.0490274366
-0.2718627615 0.0147744206 0.0489215736
-0.2657233979 0.0034027425 0.0496272545
-0.2739196431 0.0070720772 0.0492191661
-0.2811942814 0.0090046285 0.0489183896
-0.2673917428 0.0075752409 0.0493852843
-0.2720598847 0.0030424797 0.0494600629
-0.2666113891 0.0042694402 0.0495612789
-0.2646760015 -0.0012846031 0.0498750852
-0.2676077787 0.0124041258 0.0491550165
-0.2698206771 0.003762012 0.0494916741
-0.2760342918 0.0096429945 0.0490385355
-0.2768705595 0.0100535873 0.0489952184
-0.2683196411 0.0081580155 0.0493313208
-0.2698501323 0.0100400072 0.0491996015
-0.2803052608 0.0081076782 0.0489857985
-0.2707839326 0.0037647602 0.0494635902
-0.2730032359 0.0132701379 0.048958253
-0.274788398 0.0063067943 0.0492294515
-0.2760378128 0.0123459142 0.0489130528
-0.2730246462 0.0042964359 0.0493738953
-0.2708511119 0.0108679792 0.049132143
-0.2713911317 0.0038657343 0.0494412836
-0.2724283082 0.0034618858 0.0494299151
-0.2660679193 -0.0005027312 0.049798419
-0.2726859444 0.0088731339 0.0491714258
-0.231831114 -0.0298688524 0.0511936294
-0.2332007174 -0.0285702598 0.0515301253
-0.2324505976 -0.0264437707 0.05135691
-0.2327869283 -0.026911705 0.0514364703
-0.2341851335 -0.0266428984 0.0517758664
-0.2332709401 -0.0264742493 0.0515553026
-0.2349111714 -0.0271336157 0.0519496414
-0.2334961073 -0.0249832395 0.051615612
-0.2318698498 -0.0227869425 0.051230656
-0.2333675309 -0.0277964838 0.0515735133
-0.161451596 0.0033894512 0.0496077309
-0.1694337765 0.0091361917 0.0488732505
-0.162356701 0.0070996576 0.0495665285
-0.1662182021 0.0030532955 0.0491172923
-0.1601417995 0.0040279393 0.0497500102
-0.1617460125 0.006355774 0.0496185355
-0.159355262 0.0078139326 0.0498822632
-0.1613442681 0.0105111238 0.049716652
-0.1635586018 0.0009041623 0.0493587909
-0.1612040188 0.0048320598 0.0496528119
-0.1634546027 0.0067760053 0.0494501772
-0.1661624121 0.0081414341 0.0491929826
-0.1659082633 0.0012683576 0.0491243236
-0.1633930537 0.0015259456 0.0493842183
-0.1707605104 0.0111484951 0.0487657153
-0.1667098319 0.0092128365 0.0491519301
-0.1663221623 0.0104398294 0.0492083228
-0.1607766515 0.0045682338 0.0496927395
-0.1660689168 0.0102464088 0.0492314726
-0.16646261 0.0099724647 0.0491875782
-0.1642874634 0.0051870992 0.0493434312
-0.158867891 0.0063166143 0.0499113356
-0.1631661758 0.0069125754 0.0494814527
-0.1663582267 0.0014173913 0.0490805136
-0.1679137664 0.0059766959 0.048984701
-0.1660910614 0.0036507423 0.0491384703
-0.1639233102 0.0013334188 0.0493275256
-0.168766681 0.0076941672 0.0489214012
-0.1678867043 0.0039222643 0.0489591936
-0.1694768288 0.0088998264 0.0488656106
-0.1654124223 0.0033580276 0.0492036101
-0.1685944829 0.0109425901 0.0489836445
-0.1619857712 0.0075293392 0.0496102455
-0.1684413292 0.0105987649 0.0489945235
-0.1579016571 0.010109854 0.0500620029
-0.1651212016 0.0022712219 0.0492183388
-0.1686693223 0.0050915005 0.0488955157
-0.1657958227 0.0057509577 0.0491974566
-0.161805439 0.0039724322 0.0495796879
-0.1625818922 0.0036747827 0.0494964565
-0.1638041825 -0.0002710222 0.0493175927
-0.1653589789 -0.0007807216 0.0491521149
-0.1634231195 0.0043956895 0.0494206369
-0.1627602673 0.0004511817 0.0494339251
-0.1610211084 0.0063397432 0.0496921973
-0.1693719778 0.0081088407 0.0488654144
-0.1658945145 0.002957823 0.049148969
-0.1625025122 0.0042444719 0.0495123849
-0.1645141413 0.0048507511 0.0493157005
-0.1663252443 0.0031499064 0.0491077117
-0.1668222978 0.0063033405 0.0491004378
-0.166213035 0.0014957278 0.0490963894
-0.1631120787 0.0049463903 0.0494599149
-0.1661644898 0.0083384921 0.049195482
-0.1690542886 0.0059219697 0.0488677057
-0.160596917 0.0028130529 0.0496869097
-0.1670507929 0.0066686721 0.0490821759
-0.1651234791 0.0075252938 0.0492903939
-0.1695510767 0.0077156142 0.0488417505
-0.2045699747 0.0199413482 0.0479935121
-0.1993129225 0.0173915353 0.0476931754
-0.1994529805 0.0214326152 0.0474572927
-0.2091063932 0.0184223757 0.0484809786
-0.2014771422 0.0165701724 0.0479316698
-0.20151197 0.0152660411 0.048014748
-0.2030949405 0.0168473742 0.0480552454
-0.1992690006 0.0191513134 0.0475813378
-0.2011679908 0.0204428661 0.0476670857
-0.200205213 0.0165658337 0.047821402
-0.2056056134 0.0169814057 0.0482652024
-0.2032665976 0.0212105401 0.0478023382
-0.1998040633 0.0173244948 0.047739972
-0.2003378543 0.0156505676 0.0478891107
-0.1985184267 0.0228721866 0.0472877121
-0.2089304798 0.0192462861 0.048415117
-0.1984420086 0.0216528094 0.0473559203
-0.2037761041 0.0190839608 0.0479771517
-0.2025119244 0.0145628467 0.0481448111
-0.2011610431 0.013906341 0.0480677141
-0.2021563411 0.0184331677 0.0478763376
-0.2072139037 0.0190031242 0.0482808679
-0.2017238899 0.0165362991 0.0479551921
-0.2001011677 0.0165531722 0.0478131374
-0.203624554 0.0177177425 0.0480478443
-0.198783054 0.0221257795 0.0473565257
-0.1998004143 0.0184729743 0.0476691577
-0.2053524623 0.0172446119 0.0482270465
-0.2031864383 0.0178886975 0.0479992771
-0.1978861883 0.0229851859 0.0472258326
-0.2075593854 0.0185884405 0.0483363458
-0.2011516523 0.0136698029 0.0480814175
-0.2042498058 0.0204558413 0.0479341074
-0.2062969392 0.0168261146 0.0483348128
-0.2035622891 0.0211074844 0.0478343604
-0.2087361325 0.0010251264 0.0488382722
-0.2099725281 0.0020340237 0.0489129027
-0.2073133019 0.0003906442 0.0487518564
-0.2072826004 0.002248863 0.0487481011
-0.2063538973 0.0056641119 0.0486878283
-0.2073118514 0.0013364493 0.0487508124
-0.2058923824 0.0012468903 0.0486640519
-0.2099317531 0.0047861989 0.0489076281
-0.2103787183 0.0003555922 0.048939451
-0.2081561262 0.0007945657 0.0488030171
-0.2097655222 0.0050749908 0.0488971655
-0.2116027218 -0.0030611701 0.0490177933
-0.2102240924 0.0049552176 0.0489253443
-0.2060817111 -6.91592e-05 0.0486769653
-0.2053296259 0.0031061504 0.0486277414
-0.2107858157 -0.0011037699 0.0489658335
-0.2107156353 -0.0018219641 0.0489622648
-0.2115864186 -0.0017852443 0.0490155071
-0.2080543655 0.0032112143 0.0487943499
-0.2083605832 0.0015627977 0.048814751
-0.2097739818 0.0026254068 0.0489001572
-0.2060544078 0.0023240846 0.0486728775
-0.2051277734 0.0043661766 0.0486141182
-0.2081433227 0.0035974279 0.0487994027
-0.207852563 0.0066111677 0.0487785684
-0.2089672871 0.0022467406 0.0488511817
-0.2114521725 -0.0025988423 0.0490081149
-0.2069873894 -0.0007241376 0.0487330413
-0.2051709883 0.0023012939 0.048618848
-0.1950092539 0.0111795634 0.0479989691
-0.1941330795 0.00430129 0.048020436
-0.196134737 0.0105928532 0.0480286192
-0.1988443219 0.0097465808 0.0480965623
-0.1950730863 0.0088682828 0.0480144861
-0.1967912982 0.009784012 0.0480487496
-0.1982311784 0.0097839833 0.0480821236
-0.193564524 0.0040757555 0.0480086277
-0.1890228912 0.0091143478 0.0478727589
-0.1935517557 0.0036121337 0.0480111475
-0.1920130324 0.010233931 0.0479352653
-0.1956362376 0.0111071958 0.048013941
-0.1915168641 0.0067076023 0.0479451821
-0.1927969044 0.006304988 0.0479772964
-0.194301585 0.0042754597 0.0480244985
-0.1929946517 0.0074656232 0.0479748308
-0.1979311567 0.010017026 0.0480737543
-0.1886213799 0.0091638757 0.0478631518
-0.1934415999 0.0072835146 0.0479862963
-0.192911358 0.0084816524 0.0479667293
-0.1930491999 0.006349542 0.0479828736
-0.1962124679 0.0097249385 0.0480356921
-0.1950273593 0.0102675036 0.0480049281
-0.1919071072 0.0058783989 0.0479592634
-0.1908774662 0.0092966923 0.0479146372
-0.1927325986 0.0099312805 0.0479537817
-0.1965928788 0.0098052385 0.0480440216
-0.1975224758 0.0082507469 0.0480750092
-0.1929318556 0.0103056393 0.0479561265
-0.1898272747 0.0087755932 0.0478934605
-0.1885796897 0.0091318034 0.0478623803
-0.1957292382 0.011052908 0.0480164263
-0.2757844859 -0.031141298 0.0501143988
-0.2748436741 -0.0310291349 0.0500903926
-0.2737974684 -0.0321081968 0.0501353677
-0.2733739851 -0.0316957887 0.0501030141
-0.2726924966 -0.0342981547 0.0502454001
-0.2735190267 -0.0307395257 0.0500487522
-0.2760225037 -0.031371833 0.0501325081
-0.2746703061 -0.0349296149 0.0503194236
-0.2729745633 -0.0320999976 0.0501197229
-0.2728500721 -0.0367030874 0.0503914857
-0.2743111425 -0.0321443796 0.050146983
-0.2749336904 -0.0322555665 0.0501650691
-0.2735466667 -0.0375449235 0.0504544365
-0.2749117065 -0.0339715772 0.0502668308
-0.1892173793 -0.0393468737 0.0470250754
-0.1958257182 -0.0410996078 0.0470709968
-0.1931169858 -0.0415862669 0.0470383335
-0.1961626217 -0.0411426401 0.04707387
-0.1930639442 -0.0387771686 0.0470700653
-0.191153617 -0.0365695559 0.0470763254
-0.1952760213 -0.0406477473 0.0470706921
-0.1909140096 -0.0381259579 0.0470560554
-0.1962311969 -0.0426245832 0.0470575356
-0.1926224331 -0.039240019 0.0470603366
-0.1917262544 -0.042568852 0.0470131481
-0.1919103185 -0.0400644018 0.047043751
-0.1932728305 -0.0350169193 0.047115339
-0.1947027234 -0.0442539438 0.0470235453
-0.1962038878 -0.0326590775 0.0471717148
-0.1895505449 -0.0384533987 0.0470386668
-0.1927963103 -0.0411616211 0.0470400052
-0.1963434131 -0.0339945791 0.0471577713
-0.1918818091 -0.0392683499 0.0470526086
-0.1929311099 -0.0418613652 0.0470333161
-0.1919578333 -0.0357782609 0.0470934515
-0.1973416186 -0.0328008124 0.0471814588
-0.1909287355 -0.0377171754 0.0470608974
-0.192699079 -0.0403747473 0.0470480705
-0.1908847795 -0.035347347 0.0470876752
-0.1914238399 -0.0403530669 0.0470355733
-0.1915553953 -0.0390929753 0.0470513602
-0.1870998389 -0.0366664796 0.0470346941
-0.1950516976 -0.0385819113 0.0470921757
-0.1888954721 -0.0389910404 0.0470259445
-0.1862248916 -0.03792905 0.0470114485
-0.1952949631 -0.0345869062 0.0471404891
-0.1892132089 -0.0394045082 0.0470243718
-0.1906987957 -0.0350987103 0.0470886718
-0.193133748 -0.0418757169 0.0470351767
-0.1916232001 -0.0373015793 0.0470726118
-0.1956848584 -0.0376522007 0.0471091818
-0.1971525271 -0.0357204291 0.0471460375
-0.1940368779 -0.0381002335 0.0470875644
-0.1945902783 -0.0390903083 0.0470817249
-0.1863419138 -0.0374633696 0.0470179664
-0.1945902981 -0.0382859681 0.0470909628
-0.1938649434 -0.0389714935 0.0470758396
-0.2045639705 0.025644916 0.047408743
-0.2071880625 0.029128637 0.0471910852
-0.1999999154 0.02275588 0.0474217355
-0.2059492249 0.0282055167 0.047210634
-0.206690503 0.0283783416 0.0472427044
-0.2002060475 0.0248706566 0.0471923234
-0.2037221407 0.026774942 0.0472193766
-0.2059411247 0.0216059839 0.0479711117
-0.2076628658 0.0208627869 0.0481775949
-0.2000438209 0.0242168168 0.0472563429
-0.2048551269 0.02299959 0.0477342215
-0.2061860429 0.0247033325 0.0476311121
-0.2042522653 0.0274741398 0.0471759343
-0.2084591774 0.0225652268 0.0480371335
-0.2032251105 0.0241956986 0.0474819438
-0.2088224749 0.0244791392 0.0478419098
-0.2002368666 0.0238183705 0.047315833
-0.202459622 0.0224138193 0.0476337283
-0.2064491541 0.0284014614 0.0472231078
-0.2050692206 0.0213386817 0.0479407729
-0.2082430413 0.0265968663 0.0475570505
-0.2077961733 0.0221245135 0.0480414464
-0.2041936681 0.0227226335 0.0477197587
-0.2087918312 0.0245113173 0.0478360494
-0.2016280172 0.0237918447 0.0474164803
-0.2025346058 0.0262375867 0.0471980386
-0.2093725329 0.0274808148 0.0475343484
-0.2046418826 0.0246251401 0.0475318071
-0.2080386506 0.0239476454 0.0478482158
-0.2085286383 0.022864286 0.0480075192
-0.2009404359 0.0253222532 0.047191763
-0.2083222831 0.0296852518 0.0472064623
-0.2042817298 0.0234341219 0.0476438886
-0.2040872043 0.0247447486 0.0474791038
-0.2051077476 0.0256930854 0.0474413338
-0.20540587 0.0229686421 0.0477764247
-0.2071957865 0.029079601 0.0471972818
-0.2080051873 0.0262091654 0.0475850741
-0.2060373154 0.0255732115 0.0475203661
-0.2833046468 -0.0209609483 0.0492910687
-0.2877535377 -0.020114034 0.0490424302
-0.29019561 -0.0202283976 0.0489339452
-0.2873565431 -0.0210862666 0.0491079556
-0.2886575143 -0.0225269237 0.0491168489
-0.2884855708 -0.0232697182 0.049160778
-0.2872703294 -0.0219334236 0.0491529264
-0.2856575508 -0.0189901876 0.0490859662
-0.2899895404 -0.023802683 0.0491163223
-0.284187585 -0.0240435234 0.0493988376
-0.2884407107 -0.0196981462 0.0489902471
-0.2875676703 -0.0238361188 0.0492310077
-0.2878436957 -0.0185666777 0.0489634325
-0.2833933617 -0.0232986955 0.0493999175
-0.2900419135 -0.0221062714 0.0490318843
-0.2897768759 -0.021066571 0.0489940061
-0.288157036 -0.028500293 0.0494289261
-0.287270647 -0.026677054 0.049382186
-0.2896909801 -0.0213971113 0.0490139923
-0.2831220317 -0.022313564 0.0493649706
-0.2860063591 -0.0227126005 0.0492495972
-0.2814766356 -0.0220097839 0.0494271062
-0.2864408332 -0.0185099234 0.0490261845
-0.2847831192 -0.0198222073 0.0491670047
-0.2882827995 -0.0285159599 0.0494238119
-0.2847017094 -0.0255631048 0.0494482809
-0.2863468894 -0.026122146 0.0493984929
-0.2881900099 -0.0191428763 0.0489751136
-0.2862202616 -0.0208399683 0.0491491006
-0.2828643594 -0.0225309934 0.0493875095
-0.2886237415 -0.0289806692 0.0494303552
-0.288543437 -0.0225975162 0.0491255867
-0.287299047 -0.0208650704 0.0490999488
-0.2894661913 -0.0186609354 0.0488922391
-0.2892277252 -0.023962134 0.0491595957
-0.2850262897 -0.02309107 0.0493136461
-0.2890529309 -0.0266301898 0.0492967118
-0.1850260774 -0.0281543437 0.0472209385
-0.1843279237 -0.0334081367 0.0471270623
-0.1841606424 -0.0207247846 0.0474174498
-0.1778970467 -0.0223693897 0.047596093
-0.1845250774 -0.0215288132 0.047386865
-0.1783659417 -0.024269798 0.0475373092
-0.1817126117 -0.0251504781 0.0474023761
-0.1797631637 -0.0235667626 0.0475050034
-0.1778376694 -0.0203078337 0.0476444004
-0.1816162918 -0.0206046725 0.0475077045
-0.183031005 -0.0298917138 0.0472506065
-0.1833613565 -0.0264825992 0.047315743
-0.1874512411 -0.0211598892 0.0472944456
-0.181902304 -0.028813277 0.0473136502
-0.1858353182 -0.0260063807 0.0472412931
-0.1846779379 -0.0347003702 0.0470860178
-0.1863838076 -0.0207351691 0.0473407106
-0.1865468646 -0.0265787191 0.0472039625
-0.1835398222 -0.0331366622 0.0471602756
-0.1844786994 -0.0341016854 0.0471063095
-0.1791122392 -0.0253341861 0.0474877405
-0.1837803253 -0.0310997593 0.0471977099
-0.1863464023 -0.0207798202 0.0473409958
-0.1828823831 -0.0242795332 0.0473816656
-0.185905895 -0.0335856097 0.0470687766
-0.1844791333 -0.021358133 0.0473922764
-0.1784760482 -0.0246939739 0.0475240011
-0.1862554483 -0.0300834875 0.0471353395
-0.1779228204 -0.0238968004 0.047560929
-0.1764258545 -0.0205875681 0.0476867078
-0.1832019425 -0.021401512 0.0474352551
-0.1853987484 -0.0217003877 0.0473529489
-0.1865811674 -0.0302128288 0.0471212279
-0.1812826898 -0.0302311054 0.0473031552
-0.1869775647 -0.0278616469 0.0471603502
-0.1837318288 -0.0292041915 0.0472419178
-0.1808893583 -0.0274143778 0.047379902
-0.1854242582 -0.0227022959 0.0473295869
-0.1839491232 -0.0328491683 0.047152642
-0.1808509424 -0.0241415163 0.0474546713
-0.1821309881 -0.0235663363 0.0474235286
-0.1844554535 -0.0337231176 0.047115605
-0.182022204 -0.0308916615 0.0472628824
-0.1793059794 -0.0255548658 0.047476121
